-0.190481 0.353126 0.0943394
-0.161953 -0.0823069 -0.0151441
-0.1942 0.402596 0.0814859
0.204851 -0.377196 0.17639
0.128269 -0.0391061 0.0209633
-0.202076 0.302698 0.184626
-0.178747 0.410572 -0.00304643
-0.188348 0.410187 -0.0566083
0.0496821 -0.0470906 -0.0661262
0.201564 -0.0639405 -0.031497
-0.153738 -0.0805207 0.0388458
0.0979244 -0.0425635 -0.145015
0.20865 -0.319357 -0.185569
-0.18157 -0.000320849 -0.123839
-0.180715 0.199243 0.146752
-0.183888 0.41086 -0.00991466
-0.156901 0.239538 0.0302948
0.153161 -0.0819638 -0.0213269
-0.162954 0.357281 -0.149067
-0.154923 0.391272 -0.0564315
-0.181185 0.0393249 -0.130617
-0.196381 0.0469658 -0.0128777
-0.00213089 -0.0842553 -0.164524
0.0672772 -0.0805736 0.109676
-0.182808 -0.257763 0.170632
0.206594 -0.109922 -0.17288
0.03933 -0.0429489 -0.124325
-0.200379 -0.0573317 0.122929
-0.15967 0.00553475 0.189674
0.0768294 -0.0426375 0.145383
0.103482 -0.0813142 -0.154967
-0.199447 0.169629 -0.17144
-0.179782 0.385033 0.142972
-0.199349 0.36587 -0.0313251
0.205619 -0.0587741 -0.0230015
-0.169634 0.326956 0.0158774
-0.164607 0.235045 -0.141723
-0.187786 0.186901 0.0173437
-0.158983 0.176661 0.0303791
-0.135347 -0.0802171 -0.00894231
-0.0710602 -0.081467 -0.136378
-0.127952 -0.0767318 0.0107065
0.20884 -0.136536 -0.194926
-0.196253 0.293645 0.0139567
-0.162123 0.0808097 -0.174885
-0.162906 0.289302 -0.140624
-0.165371 0.376313 -0.0646424
-0.12553 -0.0843225 -0.0129488
0.193773 -0.0541272 0.165299
0.159757 -0.0368147 0.039842
0.203413 -0.155575 -0.179122
0.200379 -0.0800745 -0.0423978
-0.162217 0.117403 -0.0177791
-0.188269 0.358416 0.0678772
-0.156095 -0.0850439 0.0182704
0.129706 -0.0396159 0.040912
0.204241 -0.280015 -0.170332
0.0779762 -0.040456 0.130663
0.178981 -0.0915413 -0.160821
-0.156377 0.146014 0.164204
0.0269475 -0.0837475 -0.183646
0.120611 -0.043847 0.0248341
-0.176719 0.215365 -0.045371
-0.0677032 -0.0779118 0.186997
-0.203085 -0.0677346 -0.0511416
-0.191373 0.149904 0.040307
0.051583 -0.0801636 -0.0836203
0.0266884 -0.0423784 0.062626
-0.174591 -0.0859132 -0.0713889
-0.0716193 -0.0410298 0.186439
-0.201917 -0.407257 -0.17687
-0.129586 -0.0844384 -0.200241
0.0709884 -0.0397544 0.165452
-0.166446 0.192347 -0.0161078
-0.172982 0.410075 0.00341755
0.151142 -0.082267 0.0718334
-0.19728 -0.0137306 0.162372
0.144118 -0.0442709 0.00912148
-0.182977 0.0973594 0.128213
-0.19429 0.120622 0.161792
-0.192743 0.123774 -0.0129782
-0.158406 0.0146619 0.191168
0.182619 -0.107979 -0.170323
0.182621 -0.297706 0.181804
-0.0303421 -0.0811556 0.147559
0.204175 -0.0458455 -0.17644
0.0455461 -0.0420858 -0.12979
-0.193632 -0.208455 0.169736
-0.0594658 -0.0395854 0.148432
-0.179167 -0.0288288 0.119253
-0.162857 -0.183988 -0.174643
0.0968337 -0.0807149 0.112912
-0.15895 0.354574 0.175919
-0.189572 0.00811332 -0.0429428
-0.19764 0.182001 -0.0193808
-0.1713 0.317752 -0.15917
-0.192571 0.268155 0.00150985
-0.19413 -0.288243 -0.168691
0.0357923 -0.0828303 -0.197433
-0.169766 0.358015 0.0186586
-0.0535156 -0.0409927 0.0956065
-0.179035 -0.223322 0.213461
-0.0768357 -0.039206 0.16999
-0.159221 0.172529 -0.0050236
-0.171542 -0.0954359 -0.175097
-0.196011 -0.00466574 0.156869
-0.182717 0.00167 0.117715
-0.20444 0.0762119 -0.156394
0.188061 -0.0855789 -0.0212952
-0.182824 0.145784 0.151852
-0.072523 -0.0829168 0.180814
0.0173434 -0.0838526 -0.162702
0.178336 -0.163551 -0.164558
-0.188994 0.219562 0.151447
0.0382323 -0.0429695 0.0903592
-0.183104 0.0889967 0.144804
-0.190866 0.343187 0.052212
-0.200266 0.248141 -0.148245
-0.191902 0.267958 -0.140747
0.0972683 -0.0790826 0.137007
-0.183115 0.185179 0.14971
0.137655 -0.0773443 0.0586874
0.167059 -0.0827962 0.0132502
0.130671 -0.0804498 0.0568931
-0.0858711 -0.0410728 -0.14317
0.0374815 -0.0390132 0.146067
-0.199504 0.196208 -0.0249475
0.0585221 -0.038536 0.162319
0.045312 -0.0382574 0.156974
-0.171285 0.25284 -0.15314
-0.177982 0.221476 -0.0253683
0.201685 -0.13904 -0.182247
0.107013 -0.0403376 -0.0772028
-0.0215286 -0.0771653 0.145486
-0.196872 0.038242 0.0191204
0.0386352 -0.0404996 -0.124678
-0.156604 0.133449 0.0181632
-0.155712 -0.0823773 -0.0570148
-0.168986 0.24278 -0.15586
-0.200058 0.178603 -0.16938
-0.18711 0.190553 0.141806
-0.199754 0.149627 0.000834876
-0.17138 0.355277 -0.0259578
-0.195312 0.168246 -0.161065
-0.182305 0.0305668 -0.132727
-0.157454 0.331686 -0.16778
-0.160327 -0.16632 -0.186974
0.208245 -0.0691875 0.188206
-0.181984 -0.0305572 0.0488179
-0.0689783 -0.0837847 0.0985141
-0.194634 -0.0878142 -0.114746
-0.179206 0.131121 -0.050071
0.0196786 -0.079332 0.187172
-0.000563208 -0.0410582 -0.162638
-0.0577626 -0.0840067 0.112749
-0.150715 -0.0826416 0.0658621
-0.201743 -0.166644 0.183746
-0.173251 0.309657 0.0577041
-0.186512 0.397592 0.117179
-0.190108 0.0143922 0.143433
0.167893 -0.0782119 -0.0491399
-0.190861 0.330348 -0.0638691
-0.170893 0.260018 0.0129055
0.152685 -0.0789292 0.0242083
0.195962 -0.0697653 0.181032
-0.199548 0.0530166 -0.0131855
-0.187645 0.154194 -0.0519869
-0.161149 -0.39189 0.182285
-0.169668 0.312021 0.0562461
0.206358 -0.225463 -0.168513
-0.196008 0.338061 -0.0574778
-0.198551 -0.036481 0.129798
-0.0976749 -0.0425562 -0.141236
-0.191642 0.186278 -0.0502715
-0.192344 0.0121054 0.140976
-0.16099 0.225279 -0.160817
-0.200498 0.055043 0.00526293
0.111095 -0.0828895 -0.00258932
-0.188979 0.219565 -0.211788
-0.162935 0.308821 0.0137204
0.0491682 -0.0809925 0.122931
-0.108123 -0.0846284 -0.00141416
0.0244578 -0.0446989 -0.127543
0.027831 -0.0842258 -0.16962
-0.161774 0.113735 -0.0310966
-0.185667 0.319796 -0.059244
-0.0117168 -0.0866926 -0.178241
0.0763964 -0.0804274 0.0988965
-0.200145 -0.324502 -0.175938
-0.00100377 -0.0426431 -0.149286
-0.164408 0.406349 0.0637468
-0.195034 0.100457 0.162501
-0.0911543 -0.0437326 -0.137133
-0.0693192 -0.079345 0.132179
0.194278 -0.267366 -0.187466
0.155199 -0.0364169 0.0640994
-0.161423 0.288963 0.0141629
-0.191946 -0.0015208 -0.00704254
-0.163641 0.106838 -0.177985
-0.159062 0.373788 -0.0906718
-0.197361 0.0193985 0.157397
-0.178732 -0.0858912 -0.0647602
-0.159866 0.243199 -0.165489
-0.201804 -0.0552465 0.0355827
-0.191071 0.347717 0.039372
-0.196592 0.101446 -0.0456376
-0.199664 -0.0500376 0.117853
-0.199056 -0.0353228 -0.032108
0.16865 -0.133004 -0.183178
-0.0568972 -0.0387824 0.0980379
-0.177736 -0.366584 0.180655
-0.201479 0.196393 -0.155521
-0.178186 -0.0224589 0.127859
-0.168644 0.0618466 0.142868
0.0632822 -0.0825719 0.115393
-0.149711 -0.0783335 -0.0141626
-0.105156 -0.0828969 0.0302567
0.0418678 -0.0471085 -0.0620158
-0.172191 -0.0843995 0.0547434
-0.189857 0.258251 0.151643
0.209291 -0.381505 0.198312
0.0430785 -0.0414427 0.160256
-0.193333 0.344122 -0.0404109
-0.176697 -0.14416 -0.167847
0.0289617 -0.0474276 0.00412809
-0.120035 -0.085719 -0.199899
-0.157503 -0.158319 0.177377
-0.0639151 -0.0845481 -0.116574
-0.205352 -0.013079 -0.161388
0.185931 -0.163059 0.174828
0.0264271 -0.042382 -0.017414
0.154593 -0.0453211 0.0205775
0.0405304 -0.0465201 -0.0219077
-0.19407 0.168739 -0.0108384
-0.174474 0.28159 0.0481782
0.126074 -0.078044 0.144032
0.115594 -0.0819201 0.16699
-0.192245 0.176736 0.165789
-0.19959 0.175444 -0.186711
0.18104 -0.290141 0.18031
0.156197 -0.0813399 0.0781415
-0.190552 -0.0892971 -0.126961
-0.200526 0.355853 0.197934
-0.162972 0.15065 -0.197508
-0.155415 0.188947 0.182432
0.074595 -0.0405128 0.00593073
-0.185185 0.0495208 0.0404555
0.181377 -0.262886 0.168698
0.175162 -0.192752 -0.168299
-0.176213 0.187315 -0.032765
0.0141061 -0.0472952 0.0119495
-0.203584 0.125803 -0.18165
-0.177172 0.0122279 0.128324
-0.180738 0.392324 -0.116554
-0.202711 -0.268014 0.20743
-0.189283 0.0696165 0.137913
0.174428 -0.153089 0.178594
-0.192226 0.0673789 -0.000113434
-0.177712 -0.0784398 -0.127205
-0.0977045 -0.0813404 0.136417
-0.189473 0.0765407 -0.0403596
0.205665 -0.0659628 0.169445
0.0964454 -0.0407082 -0.172813
-0.162885 0.0520661 -0.183964
0.160096 -0.0922572 -0.183078
-0.200281 0.12837 0.0131189
-0.164859 0.333824 -0.172912
-0.198802 0.162685 -0.17237
0.0189432 -0.0464495 -0.00987067
-0.161919 0.0955231 -0.154363
-0.0869026 -0.0835235 0.173446
-0.203488 -0.312497 -0.182542
-0.177985 0.196999 -0.122226
0.177006 -0.174493 -0.215289
-0.203505 -0.0255602 0.172092
-0.087052 -0.035896 0.168164
-0.18504 0.16609 0.0486324
-0.186746 0.404824 -0.0454656
-0.186482 0.28048 -0.0267155
-0.146691 -0.0839715 0.0672135
-0.173561 -0.187749 -0.165315
-0.190415 0.224687 -0.150771
0.03588 -0.0464572 -0.038273
-0.173353 0.206181 -0.0305344
-0.197613 -0.0315664 -0.0423433
-0.158661 0.0239312 0.189311
-0.0753227 -0.0825174 0.137708
-0.0691728 -0.0365405 0.164424
-0.201899 -0.322808 -0.179124
-0.0485525 -0.0403963 0.127938
-0.0483456 -0.0821639 0.123014
0.12427 -0.0779907 0.00713786
-0.200349 -0.0530796 -0.0580415
-0.182683 0.391395 0.0989338
-0.0969843 -0.0836308 -0.119984
-0.192834 -0.0231054 -0.00421308
0.0299405 -0.047072 0.0233421
-0.196051 0.00575609 0.156122
0.00172217 -0.0420566 0.0199632
-0.191662 0.125029 0.0558989
-0.163875 0.0936798 -0.149457
0.132488 -0.0830665 -0.169449
-0.0260563 -0.0811445 0.202609
0.100593 -0.0761043 0.152773
0.0941666 -0.0398728 -0.0861122
-0.161228 0.353847 0.0486464
0.0101993 -0.0785625 0.168908
0.126395 -0.0784333 0.00683284
0.168724 -0.328944 0.170246
-0.165125 0.118259 -0.16131
0.201828 -0.0697346 -0.0329248
-0.189056 0.097094 0.140782
0.0191763 -0.040592 -0.0127884
-0.160047 -0.0160605 0.202206
-0.19362 0.340534 -0.138868
-0.175785 0.185211 0.138319
-0.186172 0.156898 0.133655
-0.199853 -0.0245453 -0.14524
0.172422 -0.0794241 0.011684
0.154899 -0.083126 -0.00572253
-0.162996 0.349472 -0.146509
0.0280212 -0.042006 0.1138
-0.0582507 -0.0849508 -0.0895803
-0.194143 0.352036 0.0450105
-0.183345 0.403204 0.0711154
0.205019 -0.261497 -0.196713
-0.108132 -0.0838373 -0.147464
-0.0676755 -0.0824703 -0.0640245
-0.170833 0.373608 0.151888
0.19749 -0.0443103 0.0239486
0.127617 -0.0790844 0.154646
-0.199932 0.369505 0.0290463
-0.187517 0.221153 0.152942
-0.203716 0.0569167 -0.157144
-0.203485 -0.0477741 0.0560525
0.10924 -0.0815421 -0.159461
-0.162777 0.0733947 0.164602
-0.182497 -0.0105853 -0.0446355
-0.177559 -0.0817805 0.0199599
-0.165471 -0.083494 -0.0719183
0.055882 -0.0462161 -0.0674818
-0.200673 -0.0493053 0.0905605
-0.187656 0.0104023 -0.140922
-0.175737 0.405951 0.0794038
-0.165321 0.143945 -0.145037
-0.132733 -0.0819787 -0.155005
-0.199384 -0.0126258 0.0177468
-0.173378 0.12777 -0.0282407
-0.00184925 -0.041321 0.0280539
-0.183811 0.298427 0.153701
0.176652 -0.0822892 0.0909675
0.189608 -0.0895511 0.119371
-0.162965 0.115054 -0.00615701
-0.20911 0.126401 -0.196378
0.148085 -0.0809857 -0.00149423
-0.157213 0.196104 -0.0147228
-0.182315 0.0802845 0.0432782
-0.171014 0.338784 -0.0381103
-0.192128 0.228779 0.161679
-0.199804 -0.0538648 0.038378
0.16259 -0.111934 0.186523
-0.197329 -0.0059083 -0.00821385
-0.162965 -0.0293878 -0.179728
-0.200523 -0.0463722 0.0415251
-0.205938 -0.184589 0.197225
0.154549 -0.0763699 -0.0119143
-0.000366613 -0.0420407 -0.107132
-0.187632 0.0419478 -0.152358
-0.149461 -0.0814763 -0.00176643
0.00437017 -0.0420312 0.117293
-0.190711 0.105401 -0.0524935
0.12898 -0.0794121 0.0490831
-0.205299 0.0326207 0.169331
-0.193254 0.26458 -0.0179486
-0.190555 0.349529 -0.0701849
0.113969 -0.0438497 -0.156377
0.197478 -0.28336 0.168244
-0.196528 0.0439914 0.0108729
0.0662977 -0.0780606 0.116712
-0.186709 0.33943 0.0590073
0.00072068 -0.0425028 0.0199137
0.0646539 -0.0810961 0.129392
0.131154 -0.0444651 0.040429
-0.125929 -0.0405266 -0.195821
-0.157873 -0.343584 0.183212
-0.192363 0.144888 0.142166
-0.174796 0.335167 0.00812627
-0.19862 0.00126719 0.162966
-0.00500942 -0.0412008 0.0129462
-0.202815 0.404116 0.0375045
-0.161893 0.2909 0.0105025
-0.191011 0.210196 -0.147806
0.0717797 -0.0480523 0.0226956
0.0122431 -0.0421753 0.1165
-0.150442 -0.0841714 -0.00668191
-0.195637 0.35612 0.0980134
0.10727 -0.0787913 -0.158614
-0.183497 -0.0232936 -0.0382562
-0.206597 -0.0563374 -0.17304
0.201721 -0.145881 -0.180841
0.162287 -0.24973 -0.176359
-0.200369 0.235476 -0.147392
-0.197403 0.171371 -0.0178144
-0.158458 0.232383 -0.17733
-0.168627 -0.0160404 -0.0352607
-0.094734 -0.0811146 0.134773
0.0327031 -0.0419019 -0.011646
-0.166275 0.316292 0.0350829
-0.0490995 -0.0449608 0.188681
-0.192067 0.0474575 0.0194064
-0.167122 -0.142455 0.17994
-0.196313 0.0511459 -0.00254429
0.211799 -0.393071 0.199904
0.0347182 -0.0483185 -0.057787
-0.192822 -0.285991 -0.167587
0.00370877 -0.0822248 0.0291516
0.16132 -0.0818515 -0.0869147
-0.159091 0.194009 -0.0352841
0.154693 -0.0813385 -0.0928323
0.199426 -0.400233 0.168042
0.182148 -0.0883296 -0.141734
0.00795763 -0.04322 0.153581
0.0412208 -0.0424592 -0.136138
-0.169341 -0.0259728 -0.0386767
-0.169499 0.399096 -0.103449
-0.164351 0.103957 -0.150018
-0.173144 -0.0838932 0.0200103
-0.149373 -0.0831005 -0.00105027
-0.128901 -0.0855224 -0.176107
0.170652 -0.0841126 0.0827389
-0.0628389 -0.0816867 0.129606
-0.189172 0.123308 0.151033
0.205944 -0.0556351 -0.0636859
-0.197612 0.0035974 0.00474361
0.161178 -0.0773656 -0.044269
-0.154444 -0.207607 0.191231
-0.193833 0.215618 -0.0460618
0.205706 -0.0677736 0.130578
0.0621619 -0.0812032 -0.11971
-0.183067 0.018546 0.129022
-0.168045 -0.186593 0.206767
-0.132679 -0.0872325 0.0609489
-0.09179 -0.083139 0.171762
0.206711 -0.131164 -0.179497
0.0517045 -0.0416207 -0.0362506
-0.194903 0.182727 -0.158552
-0.156781 0.335821 -0.180255
0.137155 -0.0830294 -0.0513994
-0.197925 0.100614 -0.157113
-0.159779 0.366833 -0.0764681
-0.174197 0.327731 0.00367285
-0.194945 0.351561 -0.0280745
-0.178289 0.208957 -0.0475699
-0.157439 0.127356 -0.00276916
-0.200427 0.0804876 0.0210453
-0.191214 0.179789 -0.210557
-0.186009 -0.0769424 0.14689
-0.159103 -0.278939 0.177009
0.132539 -0.073833 0.171123
-0.0565276 -0.0420384 0.105883
-0.188051 0.390813 -0.126889
0.0401215 -0.0420626 -0.0642699
-0.0312484 -0.0796402 0.142463
-0.194505 0.215827 0.171923
-0.16454 0.163461 -0.168839
-0.198435 0.105148 0.163919
-0.16555 0.203359 -0.174785
0.206479 -0.0521029 0.0201697
0.0314201 -0.0483346 0.0555412
0.16231 -0.39459 -0.16848
-0.202225 -0.0401336 -0.143347
-0.173823 0.19769 0.130633
-0.159455 0.190354 0.156748
0.0354317 -0.0416436 0.156105
0.090383 -0.0809338 -0.0900595
-0.194165 0.129252 0.210147
-0.165155 0.228231 -0.164304
-0.198052 0.40906 -0.0615507
0.045458 -0.0477945 -0.0530911
0.0532089 -0.0468082 0.0131141
0.152947 -0.037374 0.0461152
0.0631516 -0.0833443 -0.079591
0.132227 -0.0755319 0.165935
-0.1964 0.180378 -0.0170724
-0.184634 0.137373 0.152205
-0.00273333 -0.0404441 0.169474
-0.186987 -0.419105 0.181491
-0.0847971 -0.0822586 -0.101167
0.00954386 -0.0410345 0.145662
0.169747 -0.0825042 0.0281982
-0.164973 0.163768 0.178008
-0.00852178 -0.0365971 -0.176923
-0.195792 0.118927 0.172606
0.0260148 -0.0424399 0.0614012
0.172028 -0.0774899 0.0230453
-0.00379191 -0.0446486 -0.108781
-0.108676 -0.0434185 -0.189303
-0.182935 0.329473 0.127579
0.052908 -0.0431403 0.112292
-0.171694 0.332089 0.020067
0.0970625 -0.0792979 0.161995
-0.198888 -0.050424 -0.15835
-0.172662 -0.014393 -0.0430428
0.0361345 -0.0435495 -0.143948
-0.161151 0.318134 -0.0299625
-0.094 -0.035836 0.172588
-0.191413 -0.169823 -0.189933
0.0164183 -0.0474164 -0.0268755
-0.143598 -0.0875473 -0.187301
-0.000752656 -0.0880216 -0.189865
-0.154952 0.167512 0.181666
-0.193372 0.354086 0.124712
-0.172343 -0.370458 0.174218
-0.122844 -0.0824913 -0.0205313
0.0794993 -0.0389449 0.156288
-0.200055 -0.0496915 0.104862
0.10243 -0.0798852 -0.132681
-0.158071 0.20143 -0.000403867
-0.106449 -0.0836254 -0.186729
0.117788 -0.0414941 -0.174062
0.0103286 -0.0412871 0.121504
0.166233 -0.269312 -0.167947
-0.196785 0.360198 0.0432591
0.086504 -0.0394409 -0.0725881
-0.174901 -0.0839802 -0.0660694
0.00393912 -0.0424529 -0.0166088
-0.195895 0.363692 0.196257
-0.0058395 -0.0426097 -0.0430249
-0.203865 0.374 0.00814692
-0.196438 -0.109824 -0.209382
-0.050502 -0.0816722 -0.131853
-0.18364 0.0199645 0.134896
-0.205378 0.165535 -0.181162
-0.178933 -0.0114084 0.117965
0.0845232 -0.0810897 0.103186
0.12859 -0.0815772 0.0086231
0.0986079 -0.0415479 -0.17534
-0.156046 -0.0787711 -0.0403373
0.154485 -0.0772324 -0.0388927
0.115133 -0.0785715 0.146247
-0.189571 0.411949 -0.0329827
0.166111 -0.361199 0.185749
-0.164321 -0.130968 -0.179256
0.142137 -0.0383971 0.0116746
-0.207052 0.206978 0.171257
-0.19787 -0.0134263 -0.142575
-0.16646 0.10646 0.0408474
-0.200155 0.0497654 0.167908
0.0186447 -0.0426951 0.0654485
0.00418335 -0.0390462 -0.181028
0.0243475 -0.0407426 -0.0357787
0.138652 -0.0426106 0.0336212
0.203088 -0.0691012 -0.0449817
-0.163355 0.119013 0.00929241
-0.0682476 -0.0855126 -0.0737785
0.0896524 -0.0458902 -0.0704139
0.0572615 -0.0392757 -0.0204437
-0.168449 0.381519 0.141299
0.167221 -0.368462 0.185386
-0.186719 0.0351418 -0.146785
-0.154726 0.156094 0.167175
0.142223 -0.0808071 0.0719223
-0.203299 -0.00437947 0.171006
0.142683 -0.0573524 -0.211055
0.167304 -0.0907482 0.187102
-0.188721 -0.390855 0.166908
-0.194677 0.217046 -0.15824
-0.16041 0.0400263 -0.16193
0.138485 -0.079751 0.0352141
-0.199068 0.152578 0.00107586
0.206722 -0.120406 -0.172868
-0.193319 0.405444 0.064428
0.0141195 -0.0781814 0.0261856
-0.208404 0.197612 0.17439
0.0629372 -0.0403101 -0.179151
-0.170476 0.244437 -0.0114401
-0.167845 0.318984 0.0179886
0.18464 -0.0895192 0.119434
-0.0785834 -0.0407572 0.183387
-0.10069 -0.0376421 -0.186277
-0.17678 0.381821 0.160686
-0.159974 0.0908024 -0.173341
-0.193143 0.0566275 -0.00180376
-0.198087 0.352965 0.0345648
-0.0357851 -0.078934 0.14953
0.0588899 -0.0849464 -0.183209
0.206502 -0.270022 -0.182528
-0.186746 -0.00458265 -0.126396
-0.187945 0.160752 0.0520154
0.0399893 -0.080785 -0.14535
-0.0039468 -0.0426022 -0.148583
-0.157441 -0.0824952 0.0715548
-0.197294 -0.0114878 0.176804
-0.165542 0.224896 0.0384114
-0.137631 -0.0835004 -0.0287517
0.031586 -0.0421252 -0.0512168
-0.156958 0.0393119 -0.156978
-0.171841 -0.0270385 0.123975
0.154317 -0.0807636 0.0185952
-0.100037 -0.0420783 -0.148306
0.00919139 -0.0463 -0.0242613
-0.0973455 -0.0815606 -0.119136
-0.0718221 -0.043224 0.108058
-0.156734 -0.0204833 -0.201025
-0.192255 0.00542034 0.0214461
-0.169357 0.0975934 0.0387543
-0.177733 0.092189 0.0521379
0.159426 -0.0805935 -0.0169799
-0.197319 -0.0382112 0.0800791
0.102864 -0.0412055 -0.168801
-0.155727 0.37359 -0.163615
-0.173471 0.158352 -0.211907
0.201082 -0.0468665 0.138806
-0.185931 0.0226 -0.143751
-0.174457 -0.379513 0.173605
-0.17407 -0.00756436 -0.0387132
-0.189969 0.0235612 0.143351
-0.195781 0.254443 0.0159117
-0.184092 0.032056 -0.050786
0.0466851 -0.0399015 -0.0321416
0.166899 -0.377286 0.188315
-0.157492 0.247606 -0.178933
0.118338 -0.0793543 -0.14665
-0.20065 0.360781 0.021194
0.168263 -0.0837391 -0.0336943
-0.194616 0.322503 -0.148898
-0.0334847 -0.0773201 0.175684
-0.175312 -0.162553 -0.166594
-0.0615322 -0.0412944 0.163567
0.0470147 -0.0401888 0.136018
-0.181435 0.00506791 0.0422893
-0.183736 0.159416 0.134446
-0.182109 -0.162984 0.212413
0.173721 -0.144165 0.178509
0.0139502 -0.0419935 0.0484262
-0.050729 -0.0845146 -0.108715
-0.191039 0.145038 0.0562482
-0.19249 0.376607 -0.183281
-0.165721 0.324643 0.0144085
0.101531 -0.0406059 -0.173952
0.203445 -0.0525036 0.136268
-0.160369 -0.0793598 0.0344156
-0.195632 -0.183662 -0.171968
-0.182003 0.142775 -0.213022
0.0575103 -0.0807012 0.12368
-0.16924 -0.149177 0.171677
-0.191374 -0.0332052 0.143274
-0.130726 -0.0810015 -0.159753
-0.0827724 -0.0830894 0.168877
0.20365 -0.193607 -0.165784
-0.0182243 -0.0431117 0.101941
-0.196651 -0.00330429 0.159151
-0.194565 0.350571 -0.0477173
-0.194634 0.326811 0.0561328
-0.206349 0.0568423 -0.1727
-0.0128318 -0.0415434 -0.116273
-0.17107 0.0369779 0.191581
-0.206698 0.038199 0.172993
-0.171752 0.118342 -0.0302093
-0.171389 0.0221505 -0.133643
0.0222608 -0.0409704 0.101059
0.0555662 -0.0408402 -0.0798281
0.0410764 -0.0411609 -0.0243832
-0.13892 -0.0735137 0.207128
-0.178591 0.072664 -0.125778
-0.160528 0.368985 -0.100352
0.00432456 -0.0447474 0.15738
0.0744805 -0.081242 0.115785
0.140327 -0.0833598 0.194553
-0.165241 0.314419 0.0304704
-0.204432 -0.235359 -0.200397
0.033896 -0.0472929 -0.0151479
0.0511983 -0.0461998 -0.0509511
-0.19599 -0.0434296 0.086462
0.0650269 -0.0458349 0.178178
-0.198546 0.0746904 0.176181
0.0593829 -0.0859166 0.188142
-0.162252 0.309386 0.148246
-0.195004 0.411876 -0.0152118
-0.204366 0.100152 0.173274
-0.164646 -0.372884 0.17832
0.0342241 -0.0430437 -0.070146
-0.0838117 -0.0407359 0.161142
-0.193459 0.111736 -0.00889873
-0.188333 0.0846945 0.03363
0.114615 -0.0812832 0.012596
-0.174352 -0.397327 0.17134
0.0221359 -0.0426497 0.100813
0.194428 -0.0708523 -0.029627
-0.156751 -0.28734 0.181868
-0.171193 0.12018 0.0267157
0.0966249 -0.0808285 0.0834255
-0.158475 0.024032 0.190168
-0.190146 -0.0891888 -0.110022
-0.0272116 -0.0802116 -0.187936
-0.189687 0.178264 0.160457
-0.187463 -0.320564 0.169061
-0.165718 -0.0797539 0.00516489
-0.155137 0.157586 0.165591
0.153346 -0.0817327 0.0410826
-0.170199 0.0933801 0.0446715
-0.164008 0.345593 0.0168309
-0.11263 -0.0825392 -0.148981
-0.196896 0.149866 0.0414768
-0.173735 0.376947 0.160465
-0.195003 -0.259029 0.169203
-0.16384 0.0549198 -0.138683
-0.166078 -0.393086 0.172278
-0.199826 0.213933 -0.0205163
-0.0661036 -0.0408661 -0.0867557
-0.158999 0.196854 -0.195448
0.205227 -0.239621 0.203655
0.0550562 -0.0817253 0.118704
-0.193035 -0.0344351 -0.0475471
0.153587 -0.0796836 0.0231023
0.138016 -0.0824431 0.00506869
0.175685 -0.144824 -0.161978
-0.190857 0.234455 0.163639
0.115451 -0.0788573 0.0111479
0.0557086 -0.0393065 -0.182833
-0.190031 0.0479275 0.151132
-0.181964 0.29961 -0.137202
0.109665 -0.0792843 -0.160067
0.0519591 -0.042129 -0.15189
-0.166488 -0.385056 0.173869
0.0528407 -0.0425875 -0.147479
-0.171299 0.0520311 0.184609
-0.202338 -0.311062 -0.178958
-0.206066 0.253241 0.182387
0.0327198 -0.0436626 -0.119146
0.165377 -0.0907056 -0.182507
-0.195052 -0.195579 -0.214432
-0.19759 0.344176 -0.026942
0.047243 -0.0422971 -0.140783
-0.156784 -0.0821507 0.00212158
-0.194606 0.0667443 0.156867
0.0462742 -0.0480195 0.0168259
-0.097286 -0.0841077 0.178023
0.0504268 -0.0804457 0.11877
0.207013 -0.400146 -0.1996
-0.0624247 -0.0829917 0.189484
-0.00668399 -0.0871649 -0.185037
-0.174949 0.389515 0.126149
-0.158689 0.240289 -0.164169
-0.2059 -0.176455 0.197602
-0.203563 0.216613 -0.20715
0.0121036 -0.0430253 0.0533606
-0.163383 0.117136 -0.0421426
0.0622064 -0.0419051 0.00754087
-0.157708 -0.010992 0.192604
0.129337 -0.0778033 0.0333315
-0.19665 0.201088 -0.173546
0.191599 -0.038151 0.0597169
0.0273228 -0.0448442 0.169497
-0.203042 0.38982 0.108612
-0.194964 0.352912 0.0575959
0.0653907 -0.0405578 -0.0661452
0.14858 -0.0765141 -0.0327085
0.172551 -0.0931611 -0.174058
0.1644 -0.0798013 -0.094016
-0.0919238 -0.0828612 -0.11267
-0.202091 -0.223946 0.180886
0.164154 -0.274301 -0.179132
0.0128271 -0.0407945 0.160372
0.100395 -0.0805596 -0.126763
-0.190778 0.00191689 0.125756
-0.163456 0.25623 -0.158952
-0.196703 0.029777 0.0173712
0.12465 -0.0461525 0.00257231
-0.188916 0.0880683 0.139846
-0.158071 -0.290472 -0.170751
-0.174025 -0.14961 0.170538
0.124866 -0.0831242 0.00674666
-0.173897 0.336026 -0.0379772
-0.199675 -0.0575253 -0.120543
-0.116876 -0.0420199 -0.196968
-0.1893 0.248721 0.153705
-0.195977 0.158493 -0.0141817
-0.164795 0.106513 -0.165765
-0.167019 -0.159586 0.1693
0.0117802 -0.0471707 -0.00555276
-0.157384 0.134691 -0.162182
0.146189 -0.0374257 0.0509112
-0.197871 -0.0502229 -0.0479716
-0.197349 0.0550443 0.0294983
-0.181808 0.2469 -0.0486333
-0.117478 -0.0813417 -0.168581
-0.166173 0.110058 -0.0464238
0.157955 -0.231374 0.182337
0.0623502 -0.0405352 -0.0680217
-0.073593 -0.081313 -0.0826381
-0.199691 0.104056 -0.02806
-0.162196 0.184291 -0.148606
-0.189736 0.0152533 -0.0279678
0.0129341 -0.0408168 -0.129142
-0.157994 0.0329444 0.192423
-0.164529 0.210962 0.152783
-0.204988 -0.258116 -0.187832
-0.162932 -0.0316621 0.0315356
-0.161893 0.301331 0.0314307
0.0909112 -0.0412565 -0.13897
0.0781749 -0.0418483 -0.133506
-0.186742 0.0450673 -0.145886
-0.156215 0.145725 -0.00350216
0.132247 -0.0816179 -0.0591602
0.109731 -0.0796939 -0.131898
0.171166 -0.159958 0.166199
-0.157453 0.115342 -0.0110024
-0.20058 0.354675 -0.120516
0.160805 -0.0790091 0.029504
-0.200466 0.343647 -0.201356
-0.20001 -0.0465471 0.0383254
-0.136654 -0.0786944 -0.143607
0.0676259 -0.0417657 0.00990825
-0.173291 0.190002 -0.128789
-0.185143 -0.0182233 -0.0482429
-0.192445 0.188611 -0.147091
-0.0635195 -0.0413977 0.120528
0.169262 -0.281255 -0.185806
-0.185905 0.286161 0.0631508
-0.0135698 -0.0367975 -0.181069
-0.19764 -0.0120988 -0.0278563
-0.0447766 -0.0415352 0.154583
-0.173094 -0.0869787 0.07228
-0.096506 -0.0807623 0.00695125
-0.204444 0.207519 -0.165763
-0.198591 -0.0600876 -0.157726
-0.150405 -0.0804844 0.170231
-0.109059 -0.080052 -0.160458
0.0738582 -0.0785097 -0.0789145
-0.195342 -0.179157 -0.214348
0.0375902 -0.079117 0.148949
0.129572 -0.0784358 -0.045946
0.000527532 -0.0824911 -0.00722292
-0.180082 0.324335 -0.0376383
-0.200211 -0.034019 0.0535615
-0.195269 -0.0378164 0.0814323
-0.177579 0.239969 0.0570433
-0.0977057 -0.0422805 -0.144776
-0.0939696 -0.0763615 -0.142562
-0.00381783 -0.0463549 -0.0143995
0.157516 -0.0788469 -0.0891797
-0.161384 0.222681 -0.15998
-0.205641 0.00261121 -0.162272
-0.182052 0.137843 0.0528517
-0.0645825 -0.038218 0.144579
-0.199778 -0.050513 -0.127296
-0.175314 -0.0782273 0.101772
0.10216 -0.0787293 0.135774
-0.195766 0.0114728 0.0523159
0.056258 -0.078431 -0.0804069
-0.199897 0.356251 -0.199511
0.110125 -0.0775354 0.147603
0.181214 -0.272384 0.16829
-0.184377 -0.0887606 0.0519005
0.0829198 -0.0460724 0.150848
-0.0697702 -0.0821917 0.132701
-0.190577 0.185824 -0.134009
-0.204307 -0.214715 -0.185984
-0.192353 0.194899 -0.147366
0.098892 -0.0427629 -0.150068
0.0608362 -0.0414713 0.0157008
-0.158197 0.0625928 -0.155605
0.0579978 -0.0454457 0.171596
0.167435 -0.0818291 0.0838186
0.0227549 -0.0795228 0.150478
-0.167615 0.192353 0.000511201
-0.163136 0.0378634 -0.13554
0.0692968 -0.0427051 0.0127067
0.0543036 -0.0410983 0.0219119
-0.16654 0.167413 -0.166013
0.187995 -0.121372 0.177944
-0.161611 0.260892 -0.162838
-0.195537 0.0298261 0.14654
0.00627469 -0.0403177 0.127539
0.0974594 -0.0471141 -0.0644265
-0.142606 -0.0818968 -0.00545394
-0.160881 -0.147013 -0.184278
-0.165603 0.133907 -0.16417
-0.15991 -0.32555 -0.173458
-0.192178 0.189966 0.167879
0.0854683 -0.0389557 0.160794
0.0869147 -0.0410275 0.156768
-0.120484 -0.0803778 -0.149179
-0.195876 0.175837 0.00665344
0.0542122 -0.0408651 -0.0538718
-0.165782 0.0988505 -0.178747
0.0721949 -0.0440254 -0.0820831
-0.0431936 -0.0827373 0.120029
0.0857355 -0.0787168 0.101506
-0.187665 0.154122 0.210871
-0.195141 -0.0500181 -0.0516931
-0.166067 0.2232 -0.138037
-0.19865 0.289457 0.173966
-0.189299 -0.108691 -0.211319
0.196814 -0.050154 0.200791
-0.179595 0.166982 0.139752
0.0817612 -0.0420231 -0.165251
-0.158818 0.12041 -0.179911
0.0401881 -0.044654 -0.183288
0.0596747 -0.0806344 0.105003
-0.156562 0.0740111 0.16715
0.0850286 -0.0412583 -0.134086
0.0497921 -0.0456337 0.167108
0.0400012 -0.0810464 0.13389
-0.154768 0.342442 -0.168726
0.0272136 -0.0419597 -0.125295
0.206619 -0.141672 -0.172256
-0.190466 -0.0247903 0.143011
0.150516 -0.0843012 -0.180119
-0.169863 0.410801 -0.0226673
0.122157 -0.0786552 0.0459256
0.00383253 -0.044484 -0.112222
-0.197058 0.355389 -0.0285789
-0.200725 0.298387 0.176714
-0.159152 0.0912565 0.165449
0.00405953 -0.0392061 -0.179465
-0.0500627 -0.0398357 0.136464
-0.0700569 -0.0422518 0.0948333
0.049903 -0.0417454 -0.137577
0.203527 -0.261491 -0.169575
-0.0657904 -0.0425251 0.10387
-0.195159 0.20191 -0.164884
-0.0527117 -0.0401303 0.151519
-0.0324963 -0.0775949 0.136842
0.206405 -0.0557205 -0.0809857
0.207934 -0.092219 -0.193855
0.0960225 -0.0413149 -0.168847
-0.196933 0.36814 -0.0432051
-0.193587 0.200608 0.170629
0.164808 -0.179644 0.167671
-0.172708 -0.320536 0.171166
-0.16366 0.351756 0.198414
0.0794353 -0.0808559 0.139983
-0.183102 0.0436556 0.139831
0.1149 -0.0808735 -0.143616
0.0823627 -0.0460028 -0.0751331
0.0501028 -0.0396931 0.15173
-0.171557 0.253543 -0.0131214
-0.193511 0.0960177 0.168048
-0.168049 0.372108 -0.0348144
0.0299932 -0.0470726 -0.0365592
-0.120052 -0.0803286 -0.149364
0.0114861 -0.0401931 -0.0256859
-0.144656 -0.0832878 -0.0236416
0.0337621 -0.0410775 0.128931
0.0843195 -0.040312 -0.129288
-0.183419 0.140938 -0.0216475
0.0646396 -0.0424441 -0.143244
0.118976 -0.0781803 -0.14744
-0.195465 -0.00697649 0.00942946
-0.199946 -0.0140796 -0.0121698
0.1904 -0.0385049 0.0120209
-0.0356751 -0.0434411 -0.176394
-0.175793 -0.0824257 0.0119651
-0.198805 0.00673756 0.0174336
-0.0897815 -0.0787707 -0.150096
0.0930618 -0.0421221 -0.156256
-0.159563 0.265262 -0.174219
-0.187576 0.0148192 -0.153586
-0.116902 -0.0855353 -0.0154573
-0.19321 -0.0937249 -0.157208
-0.171835 -0.0136141 -0.0308628
-0.193835 0.148957 0.0522049
-0.171422 -0.0811374 0.144895
-0.157667 0.224984 -0.00406989
0.20799 -0.379571 0.185537
-0.193785 0.287361 0.00497845
-0.196713 0.185032 -0.00708712
-0.162418 -0.18625 -0.178828
-0.134354 -0.0779389 -0.00739976
-0.19957 0.187323 -0.1828
0.0679182 -0.0836783 -0.0775211
-0.193411 -0.0210384 0.0121928
-0.157908 0.126621 -0.163621
-0.200686 -0.190497 0.180196
-0.00403194 -0.0858863 -0.00964157
-0.168365 0.353612 0.119235
-0.156719 -0.0790174 0.0422667
-0.159464 0.163113 -0.145231
-0.19494 0.0467919 -0.0315577
-0.164539 0.171228 0.0357042
-0.183575 0.385748 0.160179
-0.0540646 -0.0851442 0.0848398
-0.204809 0.134979 -0.183155
-0.191387 -0.0400519 -0.0757178
-0.140884 -0.0825633 -0.00515339
-0.165496 0.117833 -0.145848
0.0513395 -0.0425742 0.108626
0.0775627 -0.0840611 0.108868
-0.188981 0.00384601 -0.0254897
-0.100398 -0.0817994 0.11808
-0.161058 0.206623 -0.158234
-0.17448 0.375536 -0.192785
-0.181206 0.153746 -0.13845
0.0691702 -0.0424163 0.1347
-0.178821 -0.0840748 0.132036
-0.207243 0.288549 -0.173359
-0.0137001 -0.0748597 0.17706
-9.86871e-05 -0.0420544 -0.0380562
-0.164149 0.219989 -0.164634
0.164092 -0.198568 -0.192064
-0.0544507 -0.0844221 -0.131511
-0.182738 -0.092396 0.155335
-0.163943 0.339913 -0.144628
-0.193822 0.0018871 -0.0337926
-0.200303 0.365938 0.0363982
-0.154493 -0.0267636 0.19591
0.099188 -0.0805119 0.111649
0.135092 -0.0384218 0.0164702
-0.0819688 -0.0818909 0.142682
-0.206526 0.0768953 -0.173166
0.082863 -0.0786714 -0.0821859
-0.190899 -0.0258527 0.123551
-0.0277394 -0.0801614 0.164473
-0.101724 -0.0787816 0.179084
0.0787417 -0.0408855 -0.0946901
0.0349245 -0.042194 0.0893878
0.160856 -0.0884098 0.181029
-0.180105 -0.194829 -0.17525
0.0123059 -0.044827 0.161127
-0.0658909 -0.0375772 0.112229
0.0482751 -0.0780714 -0.137542
-0.110509 -0.0588535 0.21374
-0.196312 -0.00439099 0.0117319
0.106818 -0.0750233 0.147831
-0.0693577 -0.040293 0.103564
0.12055 -0.0793059 0.0331025
-0.167937 0.186068 -0.16847
-0.168774 0.281026 0.0148379
-0.196064 -0.175845 -0.172061
0.0095829 -0.0456005 -0.184139
0.0962599 -0.0797551 -0.126829
-0.172103 -0.15529 0.184054
0.0718038 -0.0873867 0.125896
-0.199845 -0.0205207 0.00261708
0.163869 -0.0842607 0.081439
-0.158443 -0.00414869 0.191901
0.209197 -0.297698 0.198386
0.207814 -0.297874 -0.183918
-0.167554 0.367572 -0.0755521
-0.103535 -0.0426181 -0.145587
-0.197982 0.0177908 0.161032
-0.00220127 -0.0400855 0.11762
-0.199341 -0.0505268 -0.0635955
0.0535813 -0.0484396 -0.032373
-0.160147 0.103854 -0.153578
-0.0761988 -0.0359826 0.154941
-0.168739 -0.0354615 -0.0483966
0.206124 -0.153469 -0.178986
-0.198186 0.222839 0.0237263
-0.186745 0.00828061 0.12196
0.128536 -0.0786839 0.026149
-0.108242 -0.0808559 -0.132046
0.149424 -0.0822756 0.0733845
0.0483114 -0.0789282 0.128656
-0.148363 -0.0395594 -0.183993
-0.165276 0.0711715 -0.169522
0.0964595 -0.083952 -0.176006
-0.195988 0.321801 0.14023
0.176742 -0.172904 -0.167213
-0.16834 0.311252 0.0401051
0.0176174 -0.0449058 -0.138194
-0.180047 0.0206009 -0.129422
0.162265 -0.0837603 -0.0265991
-0.197281 0.0557002 0.0331804
-0.00118859 -0.0397613 -0.13795
0.165982 -0.364648 0.188251
-0.161254 -0.0827882 0.172928
0.00359744 -0.0410596 -0.0394328
-0.195817 -0.119166 -0.209156
-0.194757 0.106119 0.170346
0.158754 -0.0815829 -0.0647628
-0.0784651 -0.0805762 -0.146498
0.169351 -0.187982 -0.175218
-0.154874 0.0850977 0.168592
-0.16415 -0.0836047 0.0565173
-0.164593 0.220269 -0.150499
0.161933 -0.0819291 0.0254398
-0.0244799 -0.0379473 -0.18069
0.201718 -0.0534832 0.154875
-0.0137447 -0.0402919 -0.157066
-0.169213 -0.087875 -0.171165
-0.0295343 -0.0445512 -0.180645
-0.0605149 -0.0825769 -0.133831
-0.180584 -0.085576 0.0709679
-0.196641 0.0191292 -0.025427
-0.0953246 -0.0753476 0.15844
-0.199697 -0.0338473 -0.144453
0.168709 -0.158754 -0.167012
-0.164802 0.359445 -0.0444842
0.167818 -0.160936 -0.168659
0.179524 -0.0835694 0.131213
-0.182668 0.180571 -0.0480572
-0.177694 0.392279 -0.118985
-0.00535279 -0.0795455 -0.00427867
0.11166 -0.078115 -0.140292
-0.207507 0.32257 -0.176345
0.158567 -0.216773 0.181145
0.200623 -0.0526977 0.150864
0.121696 -0.0821993 -0.149704
-0.18697 -0.0913505 -0.120343
-0.16319 0.0764074 0.162735
-0.182162 0.15706 -0.0498884
-0.165076 0.313806 0.036109
-0.0568407 -0.0814703 -0.064436
0.055283 -0.0419094 0.00203504
0.0681422 -0.0809428 0.0876063
0.052407 -0.0809272 -0.108076
-0.162019 0.0683355 0.161409
0.189196 -0.239359 -0.180814
0.028675 -0.0401578 -0.000989117
-0.205186 0.0658175 -0.156867
0.0297149 -0.0476162 -1.22092e-05
-0.198835 0.162528 -0.018395
-0.0559616 -0.0819312 0.126049
-0.116041 -0.0821232 0.0438428
-0.184289 0.197094 0.149564
-0.197237 0.343374 -0.0395187
-0.182879 -0.085549 0.141854
-0.16843 -0.0840355 0.0565232
-0.164022 0.0981723 -0.148038
-0.16008 0.366759 -0.0477059
0.0716108 -0.0836039 0.114521
-0.189317 0.189803 0.157104
0.194603 -0.0908431 0.146961
0.0591926 -0.0778579 0.115227
-0.164032 -0.0821531 0.0762401
0.155097 -0.079288 0.00147246
0.176933 -0.0772469 0.0163598
-0.167302 0.403491 0.0786103
-0.197425 0.0661857 -0.0304816
-0.124269 -0.0810159 0.155333
0.109634 -0.0482817 -0.0798021
-0.156896 0.40478 0.0255212
0.0640227 -0.0798044 0.130507
-0.159764 -0.338591 0.173751
-0.162085 0.288627 0.0331565
-0.0941804 -0.0762427 0.184462
-0.00939534 -0.0417068 -0.0104354
-0.18023 -0.0882103 -0.0641815
-0.193905 -0.00549143 0.210705
-0.0721323 -0.0827995 0.097084
-0.0188499 -0.0812679 0.159401
-0.197938 0.00536209 0.00225692
-0.18537 0.407646 0.052783
-0.158575 0.111533 -0.171543
-0.0182086 -0.0846305 -0.0163399
-0.199433 -0.0440819 0.116304
-0.176182 -0.0803956 0.0402769
0.137069 -0.0801438 0.0625115
0.101544 -0.0609897 0.209963
0.167589 -0.124367 -0.180264
0.0588635 -0.0403196 -0.00232706
0.106496 -0.0795012 -0.132299
0.140314 -0.0351412 0.169914
0.182166 -0.17696 0.166792
-0.170647 -0.0859354 0.157967
0.0200299 -0.0463344 0.165653
-0.158677 0.212984 -0.171327
-0.1734 0.169275 -0.211657
0.0691385 -0.0848672 0.178818
-0.18777 0.304787 -0.157846
0.114373 -0.0761445 0.143711
-0.196217 0.269565 0.0309652
-0.177203 -0.0212268 0.0391691
-0.189588 0.0529501 -0.145099
-0.16881 -0.100617 -0.17469
-0.183143 0.413454 -0.00377979
0.163386 -0.14271 0.201125
-0.203392 0.135299 -0.169905
-0.0964729 -0.0417104 0.167984
-0.114845 -0.0725682 0.187228
-0.0839801 -0.0367081 0.152871
-0.0863162 -0.0806315 -0.149219
-0.188999 0.290243 0.0061221
-0.185095 0.0371242 -0.142808
-0.0167141 -0.0410303 -0.128109
-0.196649 0.358354 0.0272099
-0.0126447 -0.0824992 -0.00936405
-0.170986 -0.129677 -0.174845
-0.162736 0.183822 -0.147154
-0.0974045 -0.0833934 0.134075
0.162156 -0.127613 0.198895
0.0752039 -0.0382385 0.166492
-0.193357 0.0671744 -0.0176908
-0.145939 -0.0800928 -0.041012
-0.192246 0.028717 -0.0147113
-0.00939698 -0.0808359 -0.181909
-0.175102 0.409216 0.0573452
0.057119 -0.045594 -0.0714116
-0.190958 -0.0380925 -0.0591964
-0.17684 -0.0874168 0.0105304
0.168026 -0.313926 0.172421
0.0135333 -0.0431362 0.0497276
-0.162202 0.308547 0.0292869
-0.19223 -0.0130332 -0.00639809
0.0707554 -0.0419602 -0.138361
-0.159867 0.16796 0.0318005
0.208726 -0.0733728 0.179394
0.0653016 -0.0419731 -0.156768
-0.179285 -0.153933 -0.175604
-0.163357 0.224106 0.141536
0.0124784 -0.0414046 -0.142788
-0.19425 0.00233841 0.210915
-0.196256 -0.0161198 0.00940809
-0.0808418 -0.0351506 0.178572
-0.0779296 -0.0832878 -0.187022
0.208513 -0.234316 -0.193304
-0.19462 -0.241515 -0.166346
-0.15761 0.169274 0.156682
0.0903954 -0.0746559 0.13819
0.189676 -0.167423 -0.177782
-0.187101 0.0238368 -0.153788
0.171026 -0.081419 -0.0321858
-0.19521 0.177639 0.00363047
0.0281022 -0.0415981 0.152089
0.201915 -0.252907 -0.167715
-0.185633 0.127122 0.210715
0.158697 -0.0829277 0.0881015
0.195475 -0.0405778 0.039028
-0.145101 -0.0841269 -0.0254471
-0.169212 -0.0842003 0.106031
-0.17868 0.241596 0.0346677
-0.194763 0.355158 -0.203439
-0.159005 0.112303 0.164308
-0.114603 -0.0440545 0.182987
-0.174729 -0.36194 0.170886
-0.0593506 -0.0867072 -0.187679
0.111103 -0.082107 0.0840319
0.148234 -0.0812498 0.078177
-0.167337 -0.394277 -0.169174
0.0368783 -0.0805359 0.158095
-0.203098 0.00327992 0.17032
-0.165358 0.203631 -0.167503
-0.159081 0.112918 -0.152703
-0.195891 0.243514 -0.0396888
-0.00812096 -0.0455112 -0.00531846
-0.147991 -0.0819218 -0.140934
0.191901 -0.256937 -0.184353
0.16361 -0.152937 0.201564
0.0257463 -0.0469277 -0.0129364
0.0373072 -0.041925 0.106391
-0.18952 0.319194 0.115556
0.118498 -0.0831612 0.00178673
-0.186407 0.144367 -0.0136891
-0.199256 -0.285235 -0.17569
0.201333 -0.0566101 -0.043649
-0.175026 0.227663 0.0514519
-0.137682 -0.0357824 0.181883
-0.18812 0.187296 -0.124616
-0.0107792 -0.0407945 -0.00859482
-0.18027 -0.0860856 -0.0813585
-0.159251 0.363913 -0.041747
0.0845893 -0.081829 -0.137499
-0.15784 0.372516 -0.0893741
-0.0233202 -0.0851727 -0.17813
-0.176034 0.220206 0.0538512
-0.087096 -0.0776163 0.171918
-0.164978 0.176408 0.166105
-0.0456798 -0.0414111 0.14502
-0.173277 -0.0199835 0.125264
0.0368094 -0.08048 0.112562
-0.0513248 -0.039038 0.150192
-0.183941 -0.16374 -0.163882
0.108255 -0.078499 0.139868
0.191191 -0.108676 0.163845
-0.015007 -0.0419666 -0.00591722
-0.163572 0.245019 -0.143765
-0.200905 -0.180682 0.181309
-0.077145 -0.0796985 -0.090498
-0.194408 0.353214 -0.105991
0.176948 -0.10651 -0.167514
-0.197677 0.156177 0.000745648
-0.192928 0.218991 -0.130917
-0.197661 -0.0989114 -0.162017
-0.203603 -0.0153038 0.170986
0.0488816 -0.0786487 -0.118819
-0.164759 0.212027 -0.165845
0.0296198 -0.0412111 -0.121082
-0.198857 0.354254 -0.0645079
0.0784233 -0.0473497 0.0151029
-0.196931 0.00666865 0.157438
-0.159719 -0.156528 -0.186814
-0.168629 -0.082216 0.0156049
0.00621941 -0.0428545 -0.111454
0.115529 -0.0791246 0.039317
-0.16764 0.057321 0.175975
-0.194288 0.216407 -0.163097
0.0386576 -0.0781765 0.143392
0.19612 -0.0616199 0.16849
-0.049923 -0.0428966 -0.172801
0.132508 -0.0798308 0.0318086
0.193406 -0.25152 -0.186113
0.0325106 -0.0432567 0.0858335
-0.200691 -0.200121 0.188263
-0.200396 0.212864 -0.155201
-0.179666 0.129008 0.0322248
0.0729141 -0.0815096 0.139057
0.206195 -0.223228 0.203315
0.0088911 -0.043023 -0.0491462
-0.197337 0.0450196 0.0152502
-0.0175811 -0.04119 -0.012582
-0.157354 0.134799 0.155925
-0.182427 0.144112 -0.133921
0.0742055 -0.0829473 0.0884431
-0.172581 -0.0811068 0.154269
0.105569 -0.0791528 0.0699832
0.0187689 -0.0416574 0.124727
0.16725 -0.169551 0.166999
-0.196234 -0.00721376 -0.0351436
-0.19775 0.0363535 0.147279
-0.0363696 -0.0864412 -0.183186
-0.207476 -0.328715 -0.195108
-0.166894 0.203541 -0.00222718
-0.123402 -0.0450198 0.205847
0.178927 -0.0808023 0.121323
0.14928 -0.0795087 0.0406884
-0.0820162 -0.0356713 0.160794
0.0574786 -0.0800105 0.130213
-0.166851 0.309095 -0.150179
-0.00412881 -0.0424862 0.111571
-0.193053 0.0296735 -0.0192633
7.68774e-05 -0.087793 0.175761
-0.163521 0.364741 -0.0728624
0.154013 -0.083768 -0.0224826
-0.205619 0.243945 0.19363
0.00137277 -0.043126 -0.152849
-0.164701 0.167133 0.164522
-0.156722 0.231447 0.0304035
-0.175399 0.205529 -0.12277
-0.17743 -0.00991836 0.0394632
-0.197508 -0.00255037 -0.0265673
-0.166595 0.183126 -0.179934
-0.173095 -0.10448 -0.176585
-0.124983 -0.0761236 -0.00467763
-0.193812 0.357707 0.0603214
-0.025207 -0.0412709 0.0997075
-0.13526 -0.0774944 0.00915006
-0.158831 0.117459 -0.166685
-0.202772 -0.284983 0.206995
-0.192233 0.291827 -0.0514262
-0.194521 0.265168 0.000565075
-0.201552 0.221871 -0.155972
-0.16518 0.358199 0.198392
0.203342 -0.0490282 0.120347
0.123854 -0.0787035 0.0270141
-0.118084 -0.081578 -0.0280066
0.0869826 -0.0801167 -0.0834419
-0.20854 0.173751 -0.199188
-0.172695 0.220773 -0.127383
0.159291 -0.174932 0.180408
0.186061 -0.0349401 0.164946
-0.177221 0.352614 0.0626476
0.0699661 -0.0829539 0.176722
-0.190089 0.155742 -0.0502914
0.163933 -0.162187 0.200679
-0.159905 -0.192218 -0.178623
-0.169969 0.319484 -0.142931
-0.196803 -0.18878 -0.173704
-0.0983161 -0.0812541 -0.013905
0.0932354 -0.0817333 0.174646
0.109745 -0.0821138 0.163495
-0.158087 -0.0797933 0.00185062
0.17054 -0.0827418 0.00993401
0.0442186 -0.0817357 0.128587
-0.156797 0.214121 -0.001155
-0.151954 -0.0889363 0.177762
-0.180528 0.105907 0.126153
-0.191439 -0.104596 -0.162843
2.48835e-05 -0.0809682 0.163897
-0.195131 0.287964 0.0593291
0.016942 -0.0421904 0.121719
-0.189123 0.00568248 -0.153639
-0.156564 0.0752876 -0.186421
-0.202269 -0.300843 -0.180974
0.0430642 -0.0400248 -0.0507295
-0.15718 0.183546 0.19262
-0.19568 0.0751594 0.157129
-0.0627582 -0.0437091 0.100502
-0.19348 0.348416 0.0563399
0.173325 -0.0325777 -0.175141
-0.19922 0.0635565 0.171884
-0.19638 0.175671 -0.159747
-0.169925 -0.021675 0.0363511
0.125975 -0.0830631 0.0344492
0.104114 -0.0807625 0.0817174
-0.186642 0.335053 0.211901
0.0299523 -0.0416981 0.111401
-0.135988 -0.0815212 -0.165727
0.103482 -0.0777034 0.00336111
0.0993161 -0.0808881 -0.144099
-0.0117163 -0.0440396 0.165814
0.0377758 -0.0421309 0.100412
-0.116622 -0.0824983 0.0463355
-0.189499 0.198981 0.155446
0.0712892 -0.0404568 0.151103
0.0114462 -0.0438713 -0.101828
0.0061377 -0.0394621 0.114169
-0.186396 0.0330164 -0.153314
0.0615423 -0.0410209 -0.0858131
0.0656438 -0.0803276 0.133929
-0.200334 -0.0108893 0.00331348
-0.162984 0.193422 -0.153073
-0.133925 -0.0426576 -0.186999
0.179142 -0.0870027 -0.0962758
0.178937 -0.083971 -0.00550559
0.0431781 -0.0403289 -0.0693937
-0.158646 0.101446 0.165895
-0.192339 0.219753 0.160956
-0.165142 0.155207 0.176002
-0.170675 -0.0863787 0.150118
0.000562225 -0.0457365 -0.0358949
-0.17516 0.200535 -0.0341992
0.0113252 -0.0478393 0.0235685
-0.11935 -0.0812607 -0.174369
-0.206947 0.203429 -0.204266
-0.206965 -0.0452777 -0.171951
-0.157647 0.0938997 0.167169
-0.158958 -0.0839992 -0.0171915
-0.0154032 -0.0434767 -0.0300328
-0.0459254 -0.0428181 0.185357
0.131885 -0.0348434 0.173115
0.169056 -0.283051 0.208233
0.0481509 -0.0798745 0.136955
0.0772634 -0.0827726 0.169436
-0.19638 0.0547798 -0.0281983
-0.0497171 -0.0397144 0.120467
-0.185924 0.021943 -0.0519897
-0.00167364 -0.040355 -0.015511
-0.0697065 -0.0427217 0.0867165
-0.168761 -0.214157 -0.166047
-0.0765432 -0.0836209 0.100377
-0.198638 0.107306 -0.170957
-0.0836412 -0.082572 0.103674
-0.199446 -0.0440849 0.0859926
0.140739 -0.0786878 0.0402562
-0.196485 0.0331921 -0.0157417
-0.191786 0.0260967 0.0190678
-0.163632 -0.0285692 0.0445033
-0.196462 0.255305 0.0320919
-0.1696 0.0300418 0.184337
-0.00376389 -0.0794162 0.161073
-0.200303 -0.242675 -0.181649
-0.181903 -0.00949653 -0.127929
-0.187438 0.287376 0.0111162
0.0953081 -0.0818597 0.0903676
-0.178895 -0.0892478 0.0281294
0.0618862 -0.0806279 0.0887723
-0.0357938 -0.0398058 0.118451
-0.199557 -0.00309381 0.0181666
0.162456 -0.13763 0.200237
-0.200165 0.201331 -0.208438
-0.174417 0.0720504 -0.0459245
0.014132 -0.0395287 0.123915
-0.198306 -0.180331 -0.182402
-0.169546 -0.0793275 0.0478561
-0.170423 -0.0917606 0.1644
-0.165131 -0.406254 -0.178361
-0.191961 0.0380404 0.0206393
0.00424226 -0.041484 0.101318
-0.166576 0.214385 0.143098
0.0179446 -0.0843357 0.179721
0.00315702 -0.0786838 0.163933
0.0372574 -0.0418742 -0.0453596
-0.022738 -0.0412999 -0.144557
0.00549399 -0.0397727 -0.0207334
-0.00254535 -0.0400014 -0.120665
0.0703377 -0.0435845 -0.136259
-0.0551188 -0.0399959 0.133741
-0.196719 0.0341559 0.0170294
-0.0118128 -0.0850086 -0.0126853
-0.207847 0.306914 -0.176098
-0.185828 0.00808652 -0.144172
0.0412905 -0.0792161 0.131273
-0.17883 0.179096 -0.211825
-0.159579 0.325926 -0.153819
0.118943 -0.0731137 -0.176741
-0.165605 -0.090243 0.181791
-0.195604 0.166057 0.00140458
-0.0107855 -0.0423271 0.107583
0.164927 -0.315775 0.184212
-0.188912 0.0912439 -0.139716
-0.160671 0.213038 0.157678
0.0359748 -0.0405905 -0.0648281
0.206605 -0.14292 -0.178105
-0.188722 0.274112 0.153212
-0.00834819 -0.0404638 -0.140559
-0.178618 0.0265509 -0.128836
-0.0861264 -0.081345 -0.104279
0.0516889 -0.0469887 -0.0073787
-0.18833 0.266083 0.153851
-0.189267 0.234507 0.128707
-0.15875 0.340899 0.130418
-0.189515 0.0618574 0.137104
-0.195353 0.273003 -0.151797
-0.195514 0.0735509 0.157258
-0.0131153 -0.0423513 0.15825
-0.167004 0.259041 -0.166531
-0.196265 0.344161 -0.062079
0.162875 -0.0801137 -0.116871
-0.0702415 -0.0400918 0.173276
-0.0540685 -0.0425049 0.0854346
0.0352836 -0.0423186 0.117633
-0.112029 -0.0804627 -0.0227123
-0.195134 0.0313884 0.0131065
-0.195656 0.352626 -0.09202
-0.0700474 -0.0822497 -0.183809
0.207339 -0.102794 -0.195049
-0.195251 0.144453 0.0508494
-0.160093 -0.329731 0.173669
-0.188103 -0.0232839 -0.0525214
0.0456167 -0.0406142 0.00882146
-0.159891 -0.0790849 0.00151657
0.0557319 -0.0812701 -0.0727349
0.156054 -0.0796075 0.00376452
0.0924126 -0.0423369 -0.147639
-0.164626 0.132752 0.164425
0.0195083 -0.0372038 -0.174828
-0.130437 -0.0805172 -0.0319313
-0.171922 0.38099 0.150014
0.16234 -0.399572 -0.168632
-0.168991 -0.0802751 0.100478
-0.188504 0.0559656 0.150549
-0.165643 0.211312 0.146934
0.137971 -0.0820895 0.0160026
-0.0579173 -0.0385181 0.134135
0.00469748 -0.0430865 0.112627
-0.171894 0.277388 -0.169912
-0.047482 -0.0785022 0.127739
-0.189283 0.0559261 0.151816
0.0916985 -0.0755458 0.212646
0.00694637 -0.0435065 0.0443253
0.0643728 -0.0398778 0.159681
-0.206626 0.117977 0.177761
-0.148953 -0.0841772 -0.0458487
-0.0355346 -0.080141 0.129843
-0.159936 -0.0814877 -0.0745043
-0.163993 0.409368 0.0461932
-0.200672 0.370265 0.0691407
-0.175106 0.107904 0.0351758
-0.203786 0.176819 -0.181495
-0.183049 0.391423 -0.133204
-0.196381 0.020186 0.144667
-0.196015 0.0822152 0.159289
0.0028869 -0.0412646 0.148393
0.176019 -0.183602 -0.215158
0.023618 -0.0423012 0.127072
-0.195343 -0.276366 -0.169137
-0.158935 0.153852 0.153297
-0.188527 0.413087 -0.0108195
0.0379908 -0.0808635 0.157072
-0.190007 0.298194 -0.0218701
-0.0510366 -0.0851194 0.110367
-0.196557 -0.0455858 0.100534
0.0830181 -0.0838828 -0.170725
0.0428615 -0.0843741 -0.175721
-0.00859439 -0.0806041 0.00672463
-0.151463 -0.0806558 -0.0742579
-0.191029 0.360071 0.05981
-0.201358 -0.174994 0.182643
0.0978538 -0.0825587 0.0741221
-0.195332 -0.0422271 -0.0821314
0.0641412 -0.080786 -0.158037
-0.196557 0.103651 0.0471824
-0.194649 0.2633 -0.0085729
-0.155013 0.176223 0.182501
-0.0979675 -0.0794683 -0.0135812
-0.00463207 -0.0417487 0.153303
0.0966976 -0.0795747 0.153694
-0.00661237 -0.0413765 0.135251
-0.159611 0.193589 -0.174109
-0.166022 -0.129346 -0.176294
-0.196346 -0.0151254 0.00803217
-0.180831 -0.0863094 0.0707385
-0.198981 -0.00132905 0.0049814
0.0280448 -0.0431496 0.105817
-0.163133 0.0429035 -0.165611
0.101215 -0.081217 -0.171403
-0.188039 0.257198 0.156238
-0.19484 0.17908 0.000215232
-0.159453 0.18218 -0.0365272
-0.178747 0.310212 -0.124162
0.0752592 -0.0417269 -0.17124
0.091551 -0.0419068 -0.168527
0.171726 -0.366134 0.167216
-0.184167 0.351247 0.0670727
0.136815 -0.0389729 0.0368023
-0.117643 -0.0762159 -0.0176538
-0.163061 0.207509 -0.0357678
-0.195615 -0.0458438 0.100207
-0.206238 0.349671 0.189138
-0.0487987 -0.0418643 -0.15825
0.0787018 -0.0430461 -0.148143
-0.121837 -0.0377837 0.184692
-0.0264592 -0.0770123 0.14038
0.207365 -0.105756 -0.19553
-0.20224 -0.284052 0.208372
-0.0781011 -0.0831958 -0.145217
-0.0950861 -0.0823866 -0.0145501
-0.163316 0.0637516 0.165479
0.0546323 -0.0409174 -0.0711089
-0.0482632 -0.0817389 -0.164634
0.128125 -0.0841949 0.176307
-0.0499151 -0.0779011 0.0914737
-0.0249348 -0.0802182 0.143189
0.0149157 -0.046686 -0.0418467
